-0.285625 -0.489233 -0.673227 -0.914998 0.069115 -0.397494
-0.097906 -0.429590 0.141085 0.173314 -0.471191 0.864836
-0.127534 -0.099792 0.211467 -0.624203 0.120433 0.771924
-0.210945 0.300071 0.523468 -0.474256 0.480950 0.737407
0.254812 -0.343195 -0.677009 0.843354 0.080865 -0.531238
0.089072 -0.427062 0.134038 -0.300529 -0.550768 0.778676
0.141094 0.105948 0.045916 0.850319 0.498252 0.169417
-0.334947 -0.213021 -0.133700 -0.995230 0.085355 -0.047236
-0.228493 -0.001801 0.477801 -0.536377 -0.839971 -0.082154
-0.157584 -0.767827 -0.580857 0.138541 -0.977007 0.162062
-0.382195 0.487809 0.207029 -0.093712 0.515693 -0.851633
0.382195 0.487808 0.207029 0.155363 0.379707 -0.911968
-0.298440 -0.457262 -0.298972 -0.855308 -0.516343 -0.042877
-0.173000 -0.509668 -0.150660 -0.397840 -0.913170 0.088569
-0.253565 -0.483938 -0.159631 -0.491271 -0.866051 -0.092782
-0.252282 -0.491658 -0.410034 -0.523036 -0.850672 0.052821
-0.255238 -0.382227 0.165617 -0.242255 -0.016115 0.970079
-0.175835 -0.343613 0.184575 -0.161160 -0.286380 0.944465
-0.208875 -0.243199 0.189373 -0.493088 0.070496 0.867119
-0.269998 -0.153879 0.111719 -0.813470 0.293738 0.501980
-0.198320 -0.395863 -0.719699 -0.318128 -0.035812 -0.947371
-0.326366 -0.440478 0.103287 -0.971225 0.072739 0.226786
-0.328934 -0.344970 0.022473 -0.994094 0.045828 0.098367
-0.316218 -0.435386 -0.078546 -0.956290 -0.266601 -0.120137
-0.329415 -0.355379 -0.174811 -0.993018 -0.100256 -0.062167
-0.315587 -0.231816 -0.308220 -0.990269 0.111562 -0.083199
-0.315731 -0.147406 -0.023657 -0.933051 0.348454 0.089414
-0.295701 -0.477091 -0.568084 -0.994511 -0.068429 0.079155
-0.290001 -0.432661 -0.481282 -0.972400 -0.231921 -0.025530
-0.297396 -0.185464 -0.543696 -0.954733 0.207148 -0.213481
-0.234044 -0.197440 -0.691010 -0.664909 0.182526 -0.724279
-0.256819 -0.317401 -0.662953 -0.873572 0.081780 -0.479776
-0.293486 -0.346629 -0.551213 -0.992141 -0.002134 -0.125108
-0.182941 0.111058 -0.112872 -0.789783 0.610671 -0.057650
-0.124654 0.132857 -0.171966 -0.191525 0.948089 -0.253862
-0.175137 -0.001783 -0.547570 -0.582323 0.798180 -0.154301
-0.190094 0.002105 -0.331710 -0.704927 0.686426 -0.178598
-0.292189 -0.122400 -0.265981 -0.891113 0.445213 -0.087764
-0.256412 -0.094959 -0.537246 -0.814889 0.563895 -0.134081
-0.171793 -0.060265 -0.674696 -0.524777 0.600630 -0.603203
-0.233454 0.009387 -0.003469 -0.814853 0.501543 0.290636
-0.148119 0.033215 0.120293 -0.882105 0.264811 0.389571
-0.117164 0.124554 0.070049 -0.910824 0.346227 -0.224781
-0.242281 0.211727 0.192290 -0.948125 -0.051233 -0.313743
-0.273874 0.135414 0.344218 -0.898080 -0.322341 -0.299246
-0.197645 0.244166 0.102169 -0.800747 -0.129997 -0.584727
-0.171615 0.092464 0.171905 -0.812661 -0.428511 -0.394918
-0.226605 0.045480 0.352172 -0.730754 -0.601502 -0.322792
-0.281693 0.072917 0.471388 -0.933697 -0.351064 -0.070456
-0.286023 0.138683 0.519995 -0.960788 0.133817 0.242856
-0.244810 0.043363 0.573997 -0.515723 -0.640437 0.569096
-0.240455 0.152288 0.609079 -0.703822 0.252389 0.664029
-0.176102 -0.765325 0.073415 0.126849 -0.980030 0.153134
-0.208914 -0.719992 0.151168 -0.194908 -0.572235 0.796591
-0.273938 -0.726221 0.099168 -0.655015 -0.658773 0.370100
-0.271163 -0.742818 0.024492 -0.524733 -0.824788 -0.210668
-0.092120 -0.704170 0.060272 0.961351 -0.273854 -0.028443
-0.180289 -0.749853 -0.035383 0.243062 -0.853243 -0.461408
-0.185225 -0.743892 -0.689949 -0.200671 -0.827810 -0.523891
-0.105561 -0.748237 -0.633612 0.654707 -0.694759 -0.297773
-0.238850 -0.747181 -0.600845 -0.713676 -0.700466 0.003585
-0.276716 -0.620423 -0.687288 -0.881725 -0.210387 -0.422254
-0.236620 -0.659818 -0.714130 -0.462038 -0.311369 -0.830404
-0.219089 -0.693499 -0.507299 -0.531102 -0.348340 0.772392
-0.285798 -0.646570 -0.585561 -0.962503 -0.205939 0.176570
-0.094179 -0.540266 -0.496048 0.452242 -0.731994 0.509571
-0.077612 -0.704895 -0.572883 0.901335 -0.324198 0.287212
-0.080298 -0.636785 -0.693780 0.877304 -0.187345 -0.441859
-0.260516 -0.517509 -0.484744 -0.751608 -0.323871 0.574624
-0.156205 -0.725444 -0.506183 0.272253 -0.493088 0.826282
-0.158575 -0.554294 -0.470072 -0.009387 -0.332436 0.943079
-0.153626 -0.610399 -0.732497 0.083479 -0.024101 -0.996218
-0.132871 -0.699112 -0.716164 0.289568 -0.402744 -0.868302
-0.233186 -0.524530 -0.717678 -0.398191 0.038393 -0.916499
-0.294697 -0.491524 -0.089193 -0.700919 -0.291770 -0.650832
-0.330929 -0.581065 0.019502 -0.993800 -0.068652 -0.087451
-0.314423 -0.668715 0.020950 -0.913524 -0.316661 -0.255343
-0.314775 -0.617031 0.131813 -0.865760 -0.189263 0.463292
-0.301446 -0.393207 0.140703 -0.689908 0.093546 0.717827
-0.176943 -0.433502 0.171054 0.159732 -0.028058 0.986762
-0.112788 -0.552182 0.136787 0.720765 -0.092092 0.687035
-0.263604 -0.606705 0.172918 -0.290289 -0.049701 0.955648
-0.126668 -0.716127 0.116694 0.630384 -0.391481 0.670343
-0.184242 -0.645045 0.174379 0.296674 -0.108634 0.948780
-0.112558 -0.674978 -0.031648 0.739779 -0.224763 -0.634200
-0.197718 -0.531831 -0.107084 0.124722 -0.358997 -0.924968
-0.180791 -0.679838 -0.081725 0.269639 -0.281319 -0.920953
-0.250859 -0.689635 -0.067663 -0.514525 -0.359199 -0.778614
-0.114350 -0.516486 -0.055305 0.680661 -0.695454 -0.230312
-0.241136 0.316376 0.444998 -0.942554 0.274079 0.190980
-0.239429 0.343792 0.275656 -0.975259 -0.219607 0.025348
-0.281133 0.185357 0.405560 -0.986771 0.149786 -0.062026
-0.164562 0.430967 0.185512 -0.253444 0.467997 -0.846608
-0.373602 0.420252 0.205182 -0.609504 -0.494161 -0.619927
-0.224223 0.454898 0.388949 -0.797329 0.348576 0.492708
-0.351268 0.439791 0.325637 -0.597195 -0.536802 0.595988
-0.333757 0.385905 0.256595 -0.571117 -0.786945 0.233543
-0.060607 0.151804 0.042489 -0.131472 0.878131 -0.460001
0.056562 0.064526 -0.351099 0.146136 0.972298 -0.182433
-0.059625 0.051395 -0.572616 -0.154102 0.950523 -0.269737
0.000288 -0.502346 0.041072 -0.008580 -0.918376 0.395615
-0.078054 -0.474948 0.073654 0.796806 -0.516768 0.313131
-0.046743 -0.507349 -0.574714 0.522111 -0.828796 -0.201238
-0.081206 -0.438828 -0.715240 0.140967 -0.293043 -0.945650
-0.053185 -0.491819 -0.663078 0.787419 -0.455568 -0.415245
-0.087348 0.057793 -0.353696 -0.218756 0.945357 -0.241756
0.009503 0.297362 0.014212 0.026488 0.149232 -0.988447
-0.139349 0.272274 0.048899 -0.463399 0.136848 -0.875519
-0.097702 0.301333 0.552846 -0.080078 0.445450 0.891719
-0.203754 0.406603 0.484337 -0.609249 0.370074 0.701328
-0.143388 0.172229 0.640054 -0.094823 0.486102 0.868742
-0.059439 -0.279213 0.248301 -0.209638 -0.262507 0.941882
-0.022070 -0.029800 0.312403 -0.176721 -0.924764 0.337019
-0.118301 -0.027769 0.223716 -0.828624 -0.365916 0.423659
-0.137553 0.005348 0.282681 -0.529861 -0.830371 -0.172430
-0.102408 -0.047204 0.477450 -0.152674 -0.982849 0.103437
-0.153486 0.102509 0.642707 -0.129143 -0.285300 0.949698
0.073208 0.069030 0.634731 0.066033 -0.440209 0.895464
-0.078762 0.376021 0.069544 -0.416180 0.512439 -0.751133
-0.205982 0.365941 0.168717 -0.736017 0.132135 -0.663942
-0.205017 0.653417 0.286151 -0.740286 0.286423 -0.608225
-0.126137 0.691494 0.283685 0.419302 0.831807 0.363707
-0.344656 0.497822 0.338456 -0.163358 0.766123 0.621587
-0.160439 0.538934 0.253592 -0.337653 0.861122 -0.380078
-0.399397 0.518589 0.264411 -0.630041 0.770024 0.100553
-0.049063 0.538829 0.196641 -0.305102 0.699681 -0.646033
-0.021114 0.574277 0.410354 -0.008351 0.908083 0.418708
-0.164530 0.498601 0.454380 -0.265665 0.534843 0.802100
-0.140556 0.582879 0.373159 -0.466660 0.718573 0.515637
-0.059795 0.584761 0.275749 0.133849 0.913093 -0.385156
-0.121797 -0.578621 -0.319590 -0.293344 -0.955766 -0.021466
-0.067397 -0.548736 -0.158762 -0.043276 -0.967806 0.247949
0.027958 -0.024182 -0.706301 0.033602 0.725220 -0.687697
-0.032043 -0.160257 -0.800065 -0.275423 0.269106 -0.922889
0.311920 -0.440279 -0.242199 0.940483 -0.336086 -0.050382
0.316218 -0.435386 -0.078546 0.977780 -0.178781 -0.109474
0.173000 -0.509668 -0.150660 0.307221 -0.938382 0.158285
0.253565 -0.483938 -0.159631 0.507520 -0.856723 -0.091917
0.217169 -0.507495 -0.418097 0.516728 -0.853523 0.067013
0.216446 -0.288516 0.187616 0.412056 -0.037949 0.910368
0.138429 -0.413236 0.159719 -0.137322 -0.169633 0.975893
0.122122 -0.092326 0.214339 0.536051 0.102030 0.837997
0.205948 -0.137642 0.164646 0.664029 0.222736 0.713761
0.156964 -0.466965 -0.728030 0.012079 0.026456 -0.999577
0.205096 -0.361832 -0.714035 0.355436 -0.037103 -0.933964
0.326366 -0.440478 0.103287 0.968809 0.067234 0.238514
0.330070 -0.368597 0.035831 0.994650 0.051533 0.089526
0.315587 -0.231816 -0.308220 0.990831 0.104297 -0.085886
0.336153 -0.223041 -0.136530 0.998641 0.019341 -0.048405
0.315731 -0.147406 -0.023657 0.935017 0.346973 0.073164
0.294700 -0.495876 -0.644676 0.992696 0.020820 -0.118829
0.293649 -0.369174 -0.548817 0.993223 -0.032188 -0.111682
0.281403 -0.465146 -0.486245 0.949429 -0.299331 0.094791
0.210827 0.059167 -0.024028 0.806384 0.505412 0.307089
0.180585 0.113957 -0.117513 0.801169 0.591413 -0.091430
0.177288 0.014191 -0.339196 0.651284 0.735854 -0.185332
0.122533 0.134022 -0.173161 0.117825 0.963584 -0.240047
0.102456 0.040409 -0.571348 0.366695 0.904064 -0.219550
0.292189 -0.122399 -0.265982 0.887335 0.452406 -0.089247
0.295737 -0.179953 -0.550471 0.955603 0.219268 -0.196836
0.171887 -0.043783 -0.650507 0.614632 0.606433 -0.504446
0.277565 -0.136258 0.083651 0.845332 0.316015 0.430754
0.239784 -0.067720 -0.528510 0.765671 0.630842 -0.125644
0.167528 0.089685 0.167579 0.839037 -0.396908 -0.372131
0.140378 0.008221 0.276701 0.515218 -0.853209 -0.081148
0.242280 0.211727 0.192290 0.952943 -0.037746 -0.300790
0.197645 0.244166 0.102169 0.782576 -0.147171 -0.604910
0.273874 0.135414 0.344217 0.886111 -0.349015 -0.304952
0.244739 0.017358 0.442992 0.680968 -0.710365 -0.177944
0.281693 0.072917 0.471388 0.959627 -0.278753 -0.037588
0.269382 0.088378 0.578356 0.910950 -0.111179 0.397252
0.287093 0.162264 0.449671 0.985366 0.169019 0.022045
0.217509 0.137557 0.635209 0.431210 0.134870 0.892114
0.208914 -0.719992 0.151168 0.071233 -0.594364 0.801035
0.220795 -0.764422 0.073744 0.205694 -0.974776 0.086619
0.273938 -0.726221 0.099168 0.677015 -0.599741 0.426569
0.127118 -0.746152 0.068944 -0.550782 -0.798767 0.242096
0.116282 -0.717835 -0.025475 -0.795822 -0.362852 -0.484774
0.303737 -0.702973 0.024601 0.857505 -0.445211 -0.257824
0.210330 -0.747784 -0.039018 0.111698 -0.891542 -0.438950
0.239181 -0.715725 -0.684114 0.666541 -0.529038 -0.525206
0.205129 -0.718792 -0.509342 0.496736 -0.388242 0.776223
0.233673 -0.748904 -0.591426 0.585797 -0.804344 0.099361
0.144703 -0.755333 -0.547807 -0.194225 -0.917525 0.347022
0.160082 -0.757985 -0.676511 -0.101415 -0.803386 -0.586758
0.105616 -0.748276 -0.633410 -0.643432 -0.755202 -0.125161
0.256871 -0.522625 -0.483645 0.593302 -0.347735 0.725997
0.285798 -0.646570 -0.585560 0.947662 -0.249247 0.199530
0.276716 -0.620423 -0.687288 0.858633 -0.080227 -0.506274
0.105649 -0.627489 -0.716340 -0.514126 -0.158001 -0.843036
0.078777 -0.678617 -0.671784 -0.919841 -0.252647 -0.300102
0.077612 -0.704895 -0.572883 -0.881548 -0.300128 0.364412
0.094179 -0.540266 -0.496048 -0.299718 -0.911354 0.282141
0.158575 -0.554294 -0.470072 0.014946 -0.329486 0.944042
0.153554 -0.693082 -0.498171 -0.441064 -0.311099 0.841831
0.232184 -0.615260 -0.722822 0.428763 0.006306 -0.903395
0.178775 -0.644998 -0.732131 -0.008333 -0.209290 -0.977818
0.294697 -0.491524 -0.089193 0.717388 -0.292770 -0.632171
0.330929 -0.581065 0.019502 0.990177 -0.093535 -0.103924
0.301446 -0.393208 0.140703 0.685813 0.114713 0.718681
0.314775 -0.617031 0.131813 0.869350 -0.192120 0.455324
0.132308 -0.649047 0.149959 -0.666257 -0.187086 0.721873
0.232853 -0.384537 0.173102 0.096890 -0.004879 0.995283
0.208077 -0.639390 0.176391 -0.146397 -0.048096 0.988056
0.263604 -0.606705 0.172918 0.407953 -0.064666 0.910710
0.197718 -0.531831 -0.107084 0.002642 -0.408649 -0.912688
0.115790 -0.519028 -0.054733 -0.582614 -0.760086 -0.287803
0.181144 -0.678968 -0.081961 -0.343820 -0.241098 -0.907557
0.254372 -0.679033 -0.069511 0.508876 -0.305761 -0.804708
0.087783 -0.661644 0.068477 -0.991297 -0.131601 0.003400
0.234080 0.273743 0.512144 0.786248 0.372333 0.493135
0.237975 0.349347 0.397680 0.963012 0.235938 0.130161
0.239771 0.343013 0.278491 0.994043 -0.106708 -0.022187
0.144419 0.507978 0.226845 0.159219 0.642137 -0.749873
0.202664 0.370735 0.166587 0.569133 0.269765 -0.776733
0.277655 0.374436 0.193866 0.483611 -0.747592 -0.455221
0.332897 0.397396 0.294801 0.537168 -0.690688 0.484150
0.224223 0.454898 0.388949 0.743890 0.288643 0.602755
0.411186 0.453550 0.241480 0.842870 -0.536503 0.041653
0.095673 0.142893 0.051001 0.500677 0.508357 -0.700639
0.078395 -0.476900 0.074216 -0.900357 -0.355029 0.251617
0.084039 -0.419334 -0.725094 -0.088219 -0.285463 -0.954321
0.041413 -0.466271 -0.650054 -0.581099 -0.589867 -0.560698
0.047408 -0.508996 -0.574173 -0.729696 -0.671831 -0.127231
0.139349 0.272274 0.048899 0.452524 0.263944 -0.851796
0.203754 0.406603 0.484337 0.532671 0.460493 0.710076
0.035069 0.518217 0.466637 0.055620 0.488632 0.870715
0.108250 0.163044 0.646427 0.043578 0.282642 0.958235
0.128403 0.301042 0.552241 0.117502 0.484382 0.866930
-0.004797 -0.217625 -0.788502 0.081690 -0.226339 -0.970617
-0.004400 -0.392156 0.181207 0.021025 -0.668196 0.743688
0.086716 -0.289370 0.239704 0.245041 -0.268189 0.931681
0.033788 -0.065000 0.283687 0.391789 -0.238119 0.888708
0.145640 -0.023144 0.170156 0.872552 0.193968 0.448362
0.130737 -0.042159 0.481886 0.161090 -0.984192 0.073590
0.198028 0.008795 0.564682 0.278437 -0.755333 0.593250
-0.072204 0.008413 0.588989 -0.043791 -0.779146 0.625311
0.121302 0.381315 0.106022 0.478979 0.543876 -0.689041
0.205017 0.653417 0.286151 0.903278 0.268685 -0.334510
0.126137 0.691495 0.283685 -0.372225 0.925936 0.063959
0.169926 0.532441 0.274173 0.520880 0.851565 0.059338
0.344656 0.497822 0.338456 0.404316 0.453865 0.794062
0.399397 0.518589 0.264411 0.239369 0.961947 -0.131760
0.006756 0.480342 0.109501 0.162960 0.619126 -0.768197
0.137710 0.565149 0.384853 0.383093 0.700584 0.602015
0.046540 0.589938 0.282842 -0.154742 0.978104 -0.139168
0.087580 0.554915 0.241267 0.280783 0.520468 -0.806396
0.145471 -0.567096 -0.315117 0.410836 -0.911232 -0.029494
0.017510 -0.587596 -0.355349 0.000675 -0.971557 -0.236804
0.048058 -0.588271 -0.255943 0.084162 -0.964098 0.251857
0.244034 -0.183881 -0.673517 0.750080 0.232245 -0.619227
0.127253 -0.146758 -0.760145 0.408722 0.239309 -0.880725
