-0.171848 -0.712212 0.131206 0.296737 -0.582507 0.756725
-0.161690 -0.716383 -0.694531 0.057379 -0.632766 -0.772214
-0.170784 -0.751757 -0.631017 -0.064879 -0.978049 -0.198019
-0.207735 -0.736803 -0.644451 -0.514161 -0.801235 -0.306040
-0.204272 -0.705065 -0.690938 -0.457655 -0.553961 -0.695471
-0.262774 -0.665703 0.138543 -0.566965 -0.393393 0.723735
-0.196487 -0.674868 0.157334 0.090186 -0.345408 0.934109
-0.280891 -0.597533 0.149619 -0.607608 -0.159523 0.778052
-0.198359 0.290006 0.133321 -0.820793 0.125007 -0.557379
-0.298062 0.381026 0.236640 -0.515201 -0.793127 -0.324835
-0.301577 0.379069 0.267325 -0.558343 -0.809979 0.179407
-0.292506 0.397554 0.304302 -0.519471 -0.612737 0.595570
-0.246018 0.394974 0.343033 -0.837300 -0.233227 0.494504
0.071424 0.369106 0.078026 0.312130 0.454092 -0.834491
-0.043327 -0.512169 -0.628438 0.777970 -0.586660 -0.224928
-0.054839 -0.404135 0.160705 0.052097 -0.635860 0.770044
0.005527 0.095273 -0.263640 -0.008721 0.953863 -0.300116
-0.165089 0.253713 0.086402 -0.677935 0.052810 -0.733223
-0.210988 0.424536 0.438241 -0.811302 0.347927 0.469824
-0.004461 0.236997 0.595215 -0.001825 0.515491 0.856893
-0.027095 -0.339505 0.207814 -0.053866 -0.494070 0.867752
0.006438 0.043342 0.608494 0.010679 -0.622474 0.782568
-0.204271 0.505374 0.328159 -0.487027 0.795232 0.361125
-0.178688 0.518638 0.374333 -0.744454 0.600569 0.291728
0.017167 0.579650 0.341827 -0.024713 0.988004 0.152441
-0.187888 0.479010 0.422260 -0.656478 0.552986 0.513072
-0.215403 -0.500390 -0.178069 -0.350268 -0.933111 -0.081338
-0.022425 -0.209163 -0.779009 -0.076521 -0.010488 -0.997013
-0.240433 0.346001 0.217912 -0.819265 -0.422217 -0.387992
0.137495 0.124783 -0.039657 0.557147 0.829319 -0.042633
0.035390 -0.343276 0.204111 0.085928 -0.516789 0.851789
0.100355 -0.291286 -0.748147 0.208848 -0.138657 -0.968068
-0.226724 -0.709232 -0.553562 -0.647495 -0.605212 0.463108
0.306279 -0.279690 -0.411481 0.995107 0.014924 -0.097669
0.263041 0.060879 0.455900 0.817650 -0.570788 -0.075162
0.251702 0.052591 0.508957 0.758915 -0.617377 0.207111
0.213879 0.017500 0.507898 0.549651 -0.809955 0.204589
0.180191 -0.005826 0.451863 0.418164 -0.907596 -0.037521
0.296145 -0.604701 -0.030121 0.834258 -0.265665 -0.483152
0.171321 -0.725375 0.109213 -0.372589 -0.722102 0.582878
0.288621 -0.426343 -0.588286 0.993160 0.030831 -0.112618
0.290451 -0.427389 -0.499557 0.991632 -0.128624 -0.011066
0.098332 -0.714027 -0.644838 -0.802073 -0.479829 -0.355587
0.122968 -0.619112 -0.501754 -0.497482 -0.327557 0.803255
0.128978 -0.743001 -0.644446 -0.346003 -0.860929 -0.372938
0.310947 -0.542875 -0.032233 0.899360 -0.197206 -0.390206
0.262721 -0.666049 0.138584 0.561297 -0.391203 0.729318
0.268424 -0.592473 -0.070559 0.602246 -0.253491 -0.756996
0.206217 -0.664089 0.161787 -0.034458 -0.337013 0.940869
0.170430 -0.682614 0.143325 -0.408569 -0.433361 0.803287
0.241053 -0.652189 0.158924 0.368307 -0.341685 0.864639
0.099445 -0.045696 0.228816 0.751041 -0.288551 0.593865
0.109850 -0.643065 0.099584 -0.884632 -0.199823 0.421304
0.102259 -0.560229 0.108383 -0.899392 -0.170849 0.402374
0.185184 0.282821 0.537862 0.436720 0.456340 0.775261
0.242740 0.337558 0.355618 0.984533 0.155878 0.079978
0.229800 0.395189 0.391066 0.959469 0.147728 0.239991
0.082894 -0.368097 0.182599 -0.028037 -0.494266 0.868858
-0.085296 -0.558984 -0.232230 -0.225545 -0.956628 0.184370
0.097166 0.215869 0.605984 0.084099 0.490450 0.867402
0.044160 -0.338361 -0.746485 0.054042 -0.245629 -0.967856
0.120888 -0.353589 0.191475 0.082675 -0.354808 0.931277
0.055665 -0.180278 0.253083 0.311913 -0.136078 0.940315
-0.148177 -0.538811 -0.246965 -0.413853 -0.903269 0.113272
0.067694 0.573993 0.248407 -0.169272 0.719433 -0.673619
0.157115 0.361485 0.511658 0.324187 0.431399 0.841901
0.208171 0.500773 0.337201 0.468810 0.732700 0.493324
0.182380 0.501460 0.383675 0.677901 0.606060 0.416103
0.090881 0.619374 0.289367 -0.549263 0.835553 -0.012690
0.065854 -0.201951 -0.767635 0.259203 -0.018632 -0.965643
0.278712 -0.353637 -0.605488 0.966294 0.066625 -0.248673
0.273005 -0.266672 -0.611417 0.944517 0.094584 -0.314549
0.182029 0.015395 0.353112 0.560098 -0.795843 -0.230051
-0.303411 -0.440960 -0.184706 -0.861544 -0.504411 -0.057552
-0.231535 -0.325857 0.174439 -0.360875 0.004848 0.932602
-0.267768 -0.396192 0.158954 -0.490400 0.040032 0.870578
-0.176903 0.435916 0.468818 -0.463632 0.467718 0.752519
-0.300312 -0.312400 0.101148 -0.917361 0.192510 0.348408
-0.321286 -0.386701 0.061294 -0.981209 0.092560 0.169297
-0.310565 -0.411660 -0.246625 -0.962732 -0.262956 -0.063262
-0.003267 -0.493232 -0.613118 0.055230 -0.943827 -0.325791
-0.293014 -0.440409 -0.366998 -0.905848 -0.419194 -0.060952
-0.311211 -0.346073 -0.351454 -0.994403 -0.060026 -0.086952
-0.118116 0.017939 -0.547269 -0.389807 0.888254 -0.243012
-0.168639 -0.030267 -0.595816 -0.585311 0.711727 -0.388401
-0.206740 -0.044099 -0.529407 -0.729955 0.660692 -0.175077
-0.225035 0.020923 0.512471 -0.548776 -0.789885 0.273727
-0.248939 0.039005 0.469214 -0.776418 -0.628445 -0.047240
0.037651 -0.529345 -0.095545 -0.004686 -0.994457 0.105035
-0.265120 -0.729028 0.057893 -0.615224 -0.780002 0.114439
-0.285940 -0.548735 -0.576622 -0.985102 -0.120957 0.122241
-0.112469 -0.668186 -0.698611 0.629238 -0.293690 -0.719588
-0.147209 -0.650826 -0.718569 0.180002 -0.183894 -0.966324
-0.181272 -0.678089 -0.712300 -0.144065 -0.327340 -0.933860
-0.325967 -0.500732 0.063639 -0.995901 -0.006413 0.090222
-0.292062 -0.692267 0.062694 -0.875775 -0.466561 0.123851
-0.286367 -0.674508 0.107862 -0.778035 -0.416254 0.470525
-0.149482 -0.593146 0.151739 0.514171 -0.085726 0.853393
-0.253304 -0.476893 0.166369 -0.250733 -0.001710 0.968055
-0.270378 0.390854 0.195932 -0.486697 -0.364167 -0.794046
-0.194714 0.398244 0.168983 -0.387145 0.305625 -0.869892
0.207704 0.435542 0.425255 0.769514 0.403568 0.494955
-0.065733 -0.546522 -0.670521 0.894179 -0.233943 -0.381726
0.221102 0.374325 0.442515 0.878840 0.302249 0.369168
-0.164579 0.315493 0.104917 -0.619191 0.314950 -0.719312
-0.198298 0.342054 0.503534 -0.552007 0.398176 0.732628
-0.172062 0.235109 0.580368 -0.270656 0.516752 0.812227
-0.081263 -0.355566 0.192219 -0.089152 -0.469170 0.878596
-0.169004 -0.012225 0.465143 -0.325323 -0.944648 0.042482
-0.144668 0.366930 0.120043 -0.529837 0.443993 -0.722595
0.192145 0.436884 0.188356 0.221067 0.433531 -0.873602
-0.294493 0.519145 0.262426 -0.166951 0.981265 -0.096157
-0.086812 0.570403 0.384096 -0.060371 0.875594 0.479260
-0.144414 0.534284 0.409383 -0.451359 0.661117 0.599333
-0.162444 0.614156 0.317055 -0.825502 0.343651 0.447717
-0.133431 0.627680 0.319737 0.148267 0.693696 0.704843
-0.064033 -0.577310 -0.629259 0.960136 -0.242408 -0.139202
0.208336 -0.557053 -0.475456 0.305282 -0.439787 0.844624
0.306282 -0.261402 0.053970 0.943625 0.171122 0.283354
0.303579 -0.308217 0.091421 0.920377 0.189418 0.342092
0.289318 -0.145164 0.023555 0.913165 0.306108 0.269123
0.211040 -0.074146 0.115097 0.777046 0.397914 0.487713
0.304850 -0.181528 -0.302878 0.962421 0.261321 -0.073876
0.240937 -0.052653 0.040274 0.816177 0.441982 0.372165
0.174566 0.070526 0.016672 0.793463 0.533575 0.292770
-0.120964 -0.018220 0.383085 -0.278713 -0.952579 -0.122115
-0.206117 -0.507679 -0.272649 -0.464433 -0.883492 0.061187
0.271998 0.084989 0.505986 0.929952 -0.277787 0.240883
0.120766 0.047617 0.601160 0.156879 -0.617085 0.771100
0.280044 0.119172 0.457870 0.999574 -0.022569 0.018484
0.251745 -0.721869 -0.004354 0.583796 -0.731215 -0.352855
0.187433 -0.630286 -0.491173 0.210916 -0.268140 0.940008
0.287510 -0.486567 -0.563661 0.997212 -0.057399 0.047684
0.286398 -0.563760 -0.607638 0.996224 -0.086501 0.007451
0.281319 -0.543319 -0.656050 0.939805 -0.010620 -0.341546
0.155329 -0.624954 -0.489119 -0.197137 -0.255146 0.946593
0.139852 -0.561190 -0.477487 -0.108832 -0.522466 0.845686
0.095617 -0.511062 -0.713657 -0.462650 -0.144696 -0.874653
0.313288 -0.620894 0.021712 0.947111 -0.244315 -0.208067
0.305908 -0.656501 0.073395 0.941294 -0.312985 0.126517
0.271985 -0.673670 -0.030334 0.757994 -0.388446 -0.523980
0.230316 0.343438 0.217763 0.873941 -0.325564 -0.360881
0.262811 0.365085 0.237440 0.587705 -0.774807 -0.232975
-0.157451 0.183052 0.091835 -0.794233 -0.155106 -0.587482
0.243661 0.392970 0.335947 0.839715 -0.253242 0.480361
0.143910 0.101079 0.626471 0.238286 -0.268079 0.933463
0.075121 0.117188 0.638112 0.061100 -0.109535 0.992103
0.099748 0.474824 0.174257 0.420252 0.577098 -0.700248
0.271139 0.510383 0.243888 0.072458 0.852131 -0.518288
0.274084 0.520026 0.272441 0.140449 0.989645 -0.029600
-0.254194 -0.508376 -0.695528 -0.674594 0.094065 -0.732171
0.118504 -0.552898 -0.401248 0.324464 -0.943564 -0.066416
0.150824 -0.540164 -0.256000 0.481653 -0.864464 0.143921
0.093851 -0.569855 -0.280676 0.277492 -0.952598 0.124722
0.066873 -0.552591 -0.519466 -0.597909 -0.776800 0.197705
0.064820 -0.559101 -0.430719 0.012634 -0.990129 -0.139589
0.276394 -0.436044 -0.649319 0.922026 0.103645 -0.372995
0.301563 -0.213729 -0.426879 0.984387 0.139233 -0.107687
-0.301845 -0.480020 -0.081488 -0.830900 -0.333219 -0.445613
0.281189 -0.597896 0.149506 0.627229 -0.160178 0.762186
-0.255114 -0.310381 0.159716 -0.602429 0.119988 0.789102
-0.233377 -0.210636 0.154828 -0.657370 0.215774 0.722015
-0.323356 -0.405640 -0.040731 -0.996415 -0.057468 -0.062086
-0.319948 -0.397822 -0.133010 -0.981130 -0.186007 -0.052784
-0.288394 -0.154027 0.035236 -0.910026 0.287095 0.299048
-0.245818 -0.070848 0.053906 -0.821311 0.413547 0.392972
0.006031 -0.515953 -0.558725 -0.143014 -0.932925 -0.330451
-0.105848 -0.008333 -0.621342 -0.333045 0.800032 -0.499028
0.205987 -0.679336 -0.704681 0.269378 -0.410867 -0.870990
-0.194460 -0.124681 0.159483 -0.668544 0.282037 0.688117
-0.203362 -0.059722 0.114129 -0.757813 0.361396 0.543242
-0.119407 -0.008617 0.247134 -0.689640 -0.707919 0.152472
-0.161977 0.047807 0.231087 -0.801082 -0.555617 -0.222616
-0.185666 0.030174 0.319701 -0.623251 -0.719669 -0.305998
-0.178495 0.002716 0.385863 -0.457826 -0.868023 -0.192178
-0.259531 0.061405 0.515829 -0.844094 -0.468741 0.260359
-0.261845 0.096802 0.543604 -0.878739 -0.215653 0.425806
-0.235490 0.103949 0.586584 -0.697779 -0.193810 0.689596
-0.217124 -0.714904 -0.045010 -0.248327 -0.687273 -0.682635
-0.256555 -0.712157 -0.018115 -0.590349 -0.618998 -0.518005
-0.121196 -0.732996 -0.576896 0.609004 -0.711567 0.350408
-0.156963 -0.738999 -0.554019 0.140386 -0.813198 0.564802
-0.191747 -0.749882 -0.593385 -0.327950 -0.931710 0.156096
0.049865 0.219448 0.035715 0.156620 0.108495 -0.981682
-0.320345 -0.488546 -0.031590 -0.968635 -0.118712 -0.218296
-0.281243 -0.664574 -0.024273 -0.776903 -0.340758 -0.529439
-0.210314 -0.673593 -0.071931 -0.151670 -0.358108 -0.921279
-0.095601 -0.525677 0.104216 0.866502 -0.179300 0.465860
-0.289207 -0.451424 -0.520255 -0.980815 -0.177343 0.080940
-0.350760 0.457846 0.212049 -0.472430 0.028478 -0.880908
-0.272801 0.426877 0.194954 -0.230467 0.096655 -0.968268
-0.339035 0.402079 0.246399 -0.689053 -0.709437 -0.148002
-0.359649 0.434262 0.264316 -0.855574 -0.494232 0.154037
-0.376514 0.466846 0.242141 -0.982271 -0.046121 -0.181706
0.000967 0.054608 -0.462496 -0.002139 0.989787 -0.142542
-0.018884 0.006489 -0.633519 -0.091949 0.853446 -0.513006
0.026042 0.037931 -0.560314 0.075721 0.960560 -0.267565
-0.110246 -0.483979 0.136152 0.608122 -0.203004 0.767448
-0.017249 -0.481041 -0.654579 0.229903 -0.833712 -0.502064
0.019640 0.141546 -0.067371 0.040714 0.980959 -0.189901
-0.089635 0.212085 0.043567 -0.381037 0.139974 -0.913903
-0.137606 -0.253415 0.213372 -0.360784 -0.067412 0.930210
-0.086267 -0.018072 0.308645 -0.392948 -0.918848 0.036202
-0.166977 0.001268 0.525069 -0.274519 -0.879590 0.388537
-0.186656 0.074900 0.604457 -0.340849 -0.486402 0.804509
-0.148671 0.027295 0.575359 -0.225734 -0.751622 0.619765
-0.041718 0.344564 0.052846 -0.166010 0.375566 -0.911806
-0.032283 0.425217 0.095401 -0.180875 0.563352 -0.806175
-0.067911 0.456467 0.137887 -0.391785 0.604767 -0.693370
-0.083109 0.537293 0.428236 -0.137773 0.690646 0.709948
-0.116170 -0.548667 -0.424059 -0.180653 -0.983286 -0.022635
-0.077708 -0.550514 -0.516219 0.660405 -0.682377 0.313411
0.027642 0.162451 0.018364 0.131331 0.719636 -0.681818
0.214241 -0.468821 -0.714909 0.380939 0.050636 -0.923213
0.175000 -0.436760 -0.721741 0.124404 0.029272 -0.991800
0.247641 -0.021263 -0.086304 0.888390 0.458407 -0.025029
0.292603 -0.117671 -0.143481 0.916034 0.400199 -0.026871
0.254969 -0.040014 -0.021700 0.883956 0.442247 0.151786
0.149137 0.089790 0.108008 0.977737 0.132554 -0.162662
0.140155 0.129102 0.102126 0.893754 -0.020645 -0.448081
0.210899 0.159262 0.191900 0.846998 -0.320906 -0.423808
0.179368 0.168819 0.134135 0.779009 -0.314069 -0.542683
0.224518 0.112474 0.269388 0.822786 -0.442235 -0.357004
0.205728 0.058359 0.306518 0.739245 -0.593596 -0.318058
0.230247 0.056509 0.562625 0.616289 -0.581688 0.530873
0.272300 0.136989 0.505704 0.958098 0.132193 0.254111
0.169733 -0.743186 0.017959 -0.264635 -0.949342 -0.169466
0.228201 -0.616660 -0.503601 0.537245 -0.304920 0.786379
0.264303 -0.513645 -0.488465 0.764955 -0.398051 0.506359
0.263643 -0.587124 -0.527745 0.810216 -0.289033 0.509912
0.169937 -0.693226 -0.701703 -0.092823 -0.471734 -0.876841
0.134722 -0.692990 0.108204 -0.671564 -0.470844 0.572107
0.129539 -0.723099 0.020853 -0.703249 -0.690786 -0.168093
0.120547 -0.628217 -0.032310 -0.831724 -0.198711 -0.518410
0.152629 -0.682137 -0.050477 -0.569765 -0.335741 -0.750097
0.108271 -0.674929 0.018442 -0.946383 -0.236272 -0.220305
0.250371 0.174739 0.542352 0.863755 0.261475 0.430764
0.256018 0.382020 0.194618 0.493394 -0.540513 -0.681475
0.273441 0.429547 0.192214 0.188068 0.190394 -0.963525
0.167628 0.320975 0.108762 0.615551 0.315980 -0.721979
0.235264 0.119834 0.588997 0.699356 -0.007586 0.714733
0.129094 -0.381605 -0.727267 0.115874 -0.112991 -0.986816
0.113193 -0.431805 0.157018 -0.335225 -0.296646 0.894218
0.158302 0.381033 0.138889 0.507731 0.465028 -0.725230
0.125904 0.515491 0.224280 0.368364 0.596036 -0.713476
0.140433 0.550752 0.257849 0.506500 0.375548 -0.776158
0.054180 0.565612 0.391206 0.087525 0.882537 0.462025
0.143686 0.601946 0.267192 0.461074 0.274960 -0.843687
0.111056 0.617260 0.267244 -0.129136 0.639301 -0.758036
0.094305 -0.550269 -0.212331 0.218273 -0.924021 0.313915
0.215060 -0.267983 -0.698629 0.606281 0.085918 -0.790596
0.038051 -0.148727 -0.769370 0.135643 0.302136 -0.943565
0.230325 -0.362747 -0.695451 0.611241 0.076617 -0.787727
0.161565 0.038565 0.241021 0.804716 -0.568514 -0.170948
-0.246821 -0.530346 -0.099650 -0.384669 -0.461635 -0.799327
-0.307928 -0.410593 0.121245 -0.877408 0.099644 0.469283
-0.280569 -0.289210 0.129956 -0.797399 0.193080 0.571730
-0.327408 -0.345598 -0.086956 -0.998062 -0.062170 -0.002463
-0.328769 -0.274553 -0.069224 -0.997654 0.047267 0.049522
-0.316627 -0.232602 -0.005892 -0.969699 0.157296 0.186927
-0.173875 0.066795 0.028828 -0.829172 0.505956 0.237662
-0.208872 0.042566 -0.040036 -0.823136 0.559954 0.094330
-0.216410 -0.080552 -0.589321 -0.760087 0.531266 -0.374197
-0.192946 -0.139843 -0.678851 -0.653727 0.384150 -0.651974
-0.234588 -0.128653 -0.608125 -0.808906 0.414008 -0.417455
-0.318145 -0.518351 0.108459 -0.941022 -0.033556 0.336676
-0.190947 0.012355 0.066965 -0.806774 0.454410 0.377660
-0.277635 0.109009 0.492796 -0.984855 -0.119692 0.125439
-0.226465 -0.605989 -0.085528 -0.237986 -0.239302 -0.941327
-0.222071 -0.740098 -0.002811 -0.228377 -0.905138 -0.358565
-0.139104 -0.722034 0.014411 0.690152 -0.684339 -0.235311
-0.295934 -0.395139 -0.482438 -0.994281 -0.097520 -0.043526
-0.119788 -0.699247 -0.540832 0.623451 -0.460282 0.632020
-0.079927 -0.659511 -0.626789 0.964915 -0.244931 -0.094589
-0.091505 -0.621576 -0.535073 0.791375 -0.285986 0.540313
-0.191864 -0.628598 -0.720503 -0.168513 -0.125722 -0.977649
-0.198190 -0.559261 -0.722183 -0.168463 0.002891 -0.985704
-0.327233 -0.454753 0.017778 -0.999660 -0.003547 -0.025842
-0.303603 -0.508029 0.135736 -0.773693 -0.018190 0.633300
0.070452 0.011543 0.572032 0.076493 -0.794283 0.602713
-0.280930 -0.497639 0.154836 -0.526698 0.009233 0.850002
-0.155326 -0.602734 -0.069028 0.561114 -0.153785 -0.813327
-0.188012 -0.621276 -0.083912 0.237131 -0.192402 -0.952235
0.032393 -0.015382 0.530243 0.044418 -0.911977 0.407829
-0.279336 0.132018 0.435049 -0.995955 -0.062568 -0.064481
-0.268416 0.463797 0.203831 -0.080132 0.412355 -0.907492
-0.357646 0.496080 0.235693 -0.477362 0.741367 -0.471699
-0.066083 -0.046531 -0.686948 -0.246420 0.690476 -0.680088
0.075245 0.046928 -0.460443 0.248959 0.958073 -0.141827
-0.153069 -0.540627 -0.082305 0.462445 -0.537783 -0.704935
0.077731 0.085667 -0.281406 0.175196 0.936700 -0.303148
-0.082467 -0.033367 0.264065 -0.667239 -0.520939 0.532368
-0.127547 0.143137 0.635629 -0.134917 0.121741 0.983350
0.136537 -0.013699 -0.609655 0.485674 0.784464 -0.385665
-0.284449 -0.704035 0.021066 -0.816766 -0.532752 -0.221517
0.012813 0.373976 0.063899 0.114346 0.440720 -0.890332
-0.269735 0.504738 0.230794 -0.060501 0.730007 -0.680756
-0.256900 0.265193 0.336053 -0.992633 0.113571 -0.042209
-0.024592 0.221418 0.031631 -0.030542 0.175345 -0.984033
-0.184878 -0.518744 -0.126260 -0.008858 -0.907425 -0.420121
-0.068232 -0.602737 -0.576962 0.943844 -0.271897 0.187695
-0.102865 -0.112049 -0.725440 -0.378335 0.463490 -0.801274
0.288079 -0.460828 -0.129713 0.798981 -0.561448 -0.215421
0.308957 -0.420466 -0.161306 0.936507 -0.342329 -0.075929
0.301927 -0.479590 -0.080750 0.846329 -0.289507 -0.447117
0.222068 -0.353244 0.174191 0.204673 -0.065256 0.976653
0.248598 -0.324444 0.164965 0.530857 0.068683 0.844674
0.210237 -0.220517 0.175943 0.569131 0.131091 0.811730
0.164178 -0.197644 0.200731 0.465650 0.061893 0.882802
0.145980 -0.281220 0.207063 0.320968 -0.149435 0.935226
0.193577 -0.533352 -0.723933 0.188446 0.030902 -0.981597
0.324042 -0.346423 -0.109663 0.994248 -0.089924 -0.058178
0.324460 -0.400401 -0.030759 0.996752 -0.043779 -0.067600
0.115052 0.048875 -0.352606 0.383355 0.893920 -0.232264
0.184432 0.050223 -0.226010 0.728911 0.648062 -0.220692
0.204518 -0.028640 -0.428642 0.715951 0.688580 -0.115205
-0.236056 -0.603496 -0.503845 -0.585815 -0.292904 0.755664
0.228672 -0.038032 -0.307206 0.800833 0.583434 -0.135174
0.130764 0.119513 0.042957 0.810227 0.586032 0.009938
0.144835 -0.008217 0.520268 0.226258 -0.913331 0.338576
0.041657 -0.408030 0.153236 -0.045406 -0.662858 0.747367
0.233174 -0.653975 -0.703193 0.523331 -0.288171 -0.801924
0.259552 -0.679275 -0.635142 0.902703 -0.409859 -0.130928
0.276814 -0.624258 -0.640753 0.967773 -0.202095 -0.150242
0.063119 -0.572076 -0.656929 -0.914018 -0.248798 -0.320423
0.074791 -0.547096 -0.685823 -0.742827 -0.199706 -0.639004
0.203449 -0.619156 -0.721475 0.225010 -0.116347 -0.967385
0.320507 -0.490268 -0.029550 0.968739 -0.112462 -0.221128
0.233157 -0.705432 -0.047569 0.417659 -0.607217 -0.675906
0.162323 -0.725401 -0.025087 -0.398663 -0.756143 -0.518956
0.149887 -0.604389 -0.066627 -0.557368 -0.188862 -0.808500
0.101509 -0.592102 0.009946 -0.969674 -0.134362 -0.204156
0.086289 -0.519267 0.018682 -0.791830 -0.610222 0.025185
0.322796 0.427282 0.203806 0.403922 -0.245915 -0.881120
0.345503 0.421125 0.226845 0.627175 -0.688571 -0.364036
0.309148 0.391288 0.249043 0.557831 -0.829954 -0.001327
0.068114 0.291063 0.044257 0.252892 0.222436 -0.941577
0.196763 0.076210 0.598951 0.363599 -0.429613 0.826576
-0.017613 0.175483 0.631460 -0.005431 0.369535 0.929201
0.051733 -0.462434 -0.693438 -0.429713 -0.457448 -0.778517
0.173638 -0.349427 0.180320 0.178613 -0.199764 0.963427
0.123922 0.350211 0.093142 0.457882 0.431477 -0.777285
0.178829 0.522344 0.251091 0.222916 0.790229 -0.570830
0.280803 -0.546860 -0.541426 0.951408 -0.181308 0.248897
0.127173 -0.521897 -0.109964 -0.000773 -0.985028 -0.172391
0.038122 -0.512947 -0.613654 -0.765371 -0.606606 -0.215025
0.028385 -0.582116 -0.310509 0.042718 -0.999075 -0.004860
0.242705 -0.480248 -0.698566 0.605502 0.081448 -0.791665
0.169139 0.218693 0.589443 0.323724 0.478342 0.816328
-0.291082 -0.155682 -0.408540 -0.941232 0.325184 -0.091316
-0.265823 -0.396393 -0.659554 -0.850773 0.122546 -0.511046
-0.241053 -0.437388 -0.694218 -0.634409 0.119046 -0.763776
-0.326612 -0.298327 -0.181300 -0.998435 -0.013346 -0.054305
-0.286334 -0.413314 -0.609256 -0.970279 0.079052 -0.228711
0.146120 -0.099735 -0.700147 0.503735 0.495962 -0.707299
-0.289213 -0.485657 -0.608798 -0.992171 -0.011445 -0.124361
-0.306302 -0.396414 -0.347008 -0.981750 -0.174765 -0.074992
-0.151147 0.107946 -0.013374 -0.704421 0.709668 0.012734
0.234074 -0.116792 -0.598957 0.818417 0.457971 -0.347068
-0.265585 -0.129884 -0.523356 -0.890339 0.405545 -0.206953
-0.148538 0.072290 0.093445 -0.960100 0.258101 0.107666
-0.266050 -0.103631 -0.406815 -0.854985 0.512540 -0.079390
-0.292869 -0.421987 -0.559331 -0.998814 -0.011528 -0.047299
-0.200877 0.070486 0.273419 -0.745486 -0.563236 -0.356393
-0.224342 0.116976 0.261386 -0.827240 -0.424677 -0.367863
-0.212662 0.160761 0.193311 -0.847614 -0.321704 -0.421968
-0.183450 0.168027 0.138235 -0.809001 -0.308242 -0.500503
0.278811 0.380001 0.287832 0.619085 -0.688691 0.377410
-0.257126 0.153744 0.551043 -0.869947 0.183120 0.457885
-0.261807 0.215456 0.486770 -0.927250 0.286529 0.241057
-0.268526 -0.593620 -0.069736 -0.591549 -0.262406 -0.762373
-0.195008 -0.731348 -0.553150 -0.347600 -0.772974 0.530740
-0.284224 -0.561781 -0.627894 -0.992817 -0.064607 -0.100699
-0.275227 -0.560321 -0.672509 -0.912030 -0.034812 -0.408643
-0.189986 -0.693383 -0.514407 -0.211039 -0.511635 0.832882
-0.125538 -0.631933 -0.505584 0.504928 -0.318592 0.802214
-0.229736 -0.597671 -0.713202 -0.401144 -0.081656 -0.912368
-0.312061 -0.539095 -0.032711 -0.902689 -0.183397 -0.389254
-0.300319 -0.592301 -0.031123 -0.833984 -0.243360 -0.495223
-0.156898 -0.667771 -0.058759 0.563282 -0.257144 -0.785233
-0.277281 0.169545 0.460121 -0.985875 0.152093 0.070127
-0.104231 0.149619 0.035835 -0.614920 0.576510 -0.538061
0.063264 0.004542 -0.630454 0.189014 0.855229 -0.482553
-0.121137 -0.599959 -0.039642 0.790360 -0.172492 -0.587859
-0.128745 0.198281 0.062420 -0.577907 0.018442 -0.815894
0.113220 -0.696518 0.065983 -0.873373 -0.441325 0.206038
-0.042101 -0.140240 0.272793 -0.286945 -0.241405 0.927031
-0.124930 0.414624 0.140011 -0.427374 0.526125 -0.735216
-0.020002 0.501495 0.158522 -0.120685 0.722298 -0.680971
-0.175989 0.490874 0.216431 -0.159680 0.620704 -0.767612
0.025714 0.535316 0.200921 0.053676 0.786190 -0.615649
-0.149232 0.646483 0.294853 -0.347018 0.907088 -0.238264
-0.007747 -0.095815 -0.742073 -0.082590 0.546872 -0.833132
0.278569 -0.462809 -0.212855 0.723760 -0.688715 -0.042937
0.236509 -0.491854 -0.269593 0.502908 -0.864262 0.011595
0.227628 -0.507666 -0.131417 0.336235 -0.809620 -0.481104
0.270104 -0.489986 -0.117954 0.640102 -0.605321 -0.473134
0.260110 -0.403442 0.161370 0.431616 0.027287 0.901645
0.013543 -0.271847 0.239633 0.051228 -0.317208 0.946971
0.303033 -0.391472 -0.377762 0.985828 -0.156286 -0.060974
0.140660 0.076054 -0.252156 0.443095 0.838569 -0.316968
0.146218 0.111174 -0.144726 0.479609 0.858326 -0.182350
0.102686 -0.040670 -0.673969 0.338587 0.697870 -0.631139
0.237919 -0.018338 -0.190145 0.852565 0.510885 -0.110132
0.202524 0.059432 -0.051683 0.817964 0.570643 0.072806
0.160661 0.103922 -0.025074 0.718937 0.688363 0.096365
0.097052 0.137152 -0.057884 0.194140 0.967640 -0.161193
0.147338 0.191360 0.083054 0.732604 -0.184629 -0.655136
0.083496 0.587490 0.335379 -0.237468 0.866448 0.439178
0.187330 -0.747039 -0.575778 0.223816 -0.950789 0.214260
0.178870 -0.730440 -0.533794 0.155110 -0.757886 0.633679
0.116120 -0.725368 -0.562585 -0.642730 -0.615752 0.455793
0.124829 -0.745426 -0.597655 -0.422633 -0.896349 0.133938
0.257071 -0.656379 -0.677882 0.816989 -0.324745 -0.476518
0.132084 -0.545101 -0.722336 -0.219078 -0.056664 -0.974061
0.147308 -0.718853 -0.528525 -0.373228 -0.601849 0.706030
0.168269 -0.570935 -0.726556 -0.031381 -0.031395 -0.999014
0.200365 -0.725596 -0.675205 0.290534 -0.732582 -0.615560
0.319876 -0.589995 0.072368 0.982938 -0.134694 0.125261
-0.115869 -0.609959 -0.711808 0.476888 -0.108331 -0.872263
0.215886 -0.511545 0.172182 -0.027737 0.002670 0.999612
0.248581 -0.500802 0.169169 0.257381 0.010057 0.966258
0.378192 0.464206 0.226610 0.720592 -0.081600 -0.688541
0.359952 0.495864 0.235665 0.293688 0.758386 -0.581891
0.113786 0.222702 0.052730 0.452670 0.062991 -0.889450
0.145000 0.157114 0.628541 0.237845 0.227527 0.944278
0.126940 -0.456362 -0.723903 -0.055277 -0.030818 -0.997995
0.191339 -0.416452 0.169848 -0.017020 -0.062593 0.997894
-0.002660 -0.170048 0.265593 0.086069 -0.228083 0.969830
0.074657 0.428319 0.118296 0.373172 0.557663 -0.741454
0.056361 0.509758 0.179491 0.251252 0.665023 -0.703290
0.269504 0.484341 0.216444 0.046791 0.573611 -0.817790
0.160873 0.485405 0.431401 0.499641 0.579086 0.644219
0.210990 -0.502059 -0.178450 0.348699 -0.934087 -0.076757
0.137994 0.449200 0.175089 0.359606 0.554115 -0.750760
0.030994 -0.544829 -0.479926 -0.173662 -0.961882 -0.211245
0.074855 -0.090339 -0.728915 0.246707 0.547149 -0.799852
0.127503 -0.014155 0.378776 0.285763 -0.950218 -0.124195
-0.152057 0.115265 0.119694 -0.919100 -0.177742 -0.351658
-0.215686 -0.549828 -0.475118 -0.395827 -0.471715 0.787912
-0.233018 -0.353155 -0.688244 -0.660826 0.082961 -0.745940
0.193239 -0.707161 -0.055561 -0.100797 -0.599222 -0.794212
-0.278552 -0.332992 -0.603518 -0.958005 0.078747 -0.275725
-0.317616 -0.225433 -0.263973 -0.989618 0.117131 -0.083281
-0.320008 -0.190914 -0.091249 -0.971588 0.231731 0.048147
0.313966 -0.305235 -0.328369 0.996163 -0.036432 -0.079568
-0.190805 0.043988 -0.221202 -0.744294 0.638814 -0.194791
-0.146244 0.108622 -0.143311 -0.501022 0.849735 -0.164096
-0.244043 -0.265129 -0.666750 -0.791190 0.124505 -0.598762
-0.273391 -0.256315 -0.605257 -0.935346 0.115279 -0.334422
-0.312358 -0.173213 -0.197198 -0.956359 0.285132 -0.063853
-0.243871 0.089087 0.341911 -0.827550 -0.459826 -0.322057
-0.222390 0.027043 0.405584 -0.654242 -0.720518 -0.229827
-0.252090 0.062016 0.410247 -0.828453 -0.511248 -0.228672
-0.241236 0.231064 0.524754 -0.829414 0.351574 0.434130
-0.118715 -0.696327 0.091287 0.849562 -0.413290 0.327774
0.312729 -0.177848 -0.197595 0.962377 0.265024 -0.059935
-0.159153 -0.634858 -0.492412 0.166347 -0.306440 0.937242
0.287498 -0.449892 -0.389287 0.876474 -0.480943 0.022074
-0.257968 -0.685069 -0.594300 -0.886267 -0.449984 0.109752
-0.256848 -0.675526 -0.644391 -0.850300 -0.459813 -0.256051
-0.194334 -0.622675 -0.491544 -0.240911 -0.281780 0.928742
-0.144599 -0.563009 -0.477866 0.138261 -0.491342 0.859923
-0.234483 -0.697465 -0.662997 -0.727780 -0.542174 -0.419982
-0.104188 -0.620121 0.096764 0.921275 -0.143184 0.361594
-0.114069 -0.674658 0.001488 0.901320 -0.308749 -0.303803
-0.091342 -0.578200 0.061645 0.984621 -0.167733 0.048854
-0.333453 0.407913 0.280788 -0.630640 -0.644896 0.431743
-0.111742 0.479055 0.185251 -0.337544 0.601364 -0.724172
-0.121367 0.128859 -0.040754 -0.472308 0.877741 -0.080594
0.280304 0.425708 0.333515 0.487085 -0.446392 0.750655
0.078452 -0.572364 -0.346261 0.204110 -0.971803 -0.118064
-0.102538 -0.602649 0.006031 0.959652 -0.147304 -0.239519
-0.217035 0.229504 0.560758 -0.605642 0.437816 0.664466
-0.260678 0.248405 0.419247 -0.968022 0.244327 0.056900
-0.186491 0.172550 0.612649 -0.381267 0.354204 0.853917
-0.050847 -0.033791 0.391645 -0.135302 -0.990804 -0.001297
-0.192752 0.124606 0.619275 -0.429963 -0.060935 0.900788
-0.106313 0.325918 0.068430 -0.440055 0.359487 -0.822873
-0.065288 0.279859 0.039304 -0.229262 0.148405 -0.961985
-0.108457 0.531315 0.226580 -0.280481 0.648402 -0.707746
-0.056796 0.561154 0.243104 -0.080395 0.802192 -0.591629
-0.007526 0.555978 0.230306 -0.029275 0.840569 -0.540914
-0.142916 -0.189879 -0.732722 -0.476842 0.192633 -0.857621
0.264001 -0.473136 -0.328971 0.666154 -0.745575 0.018907
0.251179 -0.256114 0.149400 0.696758 0.178371 0.694775
0.283182 -0.271361 0.116642 0.824164 0.202259 0.529003
0.318491 -0.347190 -0.217635 0.991914 -0.112023 -0.059650
0.328432 -0.296000 -0.054038 0.999062 0.024582 0.035647
0.308567 -0.407767 0.118346 0.872200 0.104561 0.477844
-0.230845 0.382410 0.409760 -0.957232 0.179315 0.227054
0.318080 -0.232800 -0.264368 0.992190 0.097839 -0.077370
0.320522 -0.197851 -0.090380 0.976368 0.211685 0.043542
0.141048 0.020596 -0.450315 0.508197 0.848830 -0.145683
0.170581 -0.015285 -0.535062 0.612706 0.770795 -0.174548
0.203185 -0.059885 -0.580541 0.725758 0.620916 -0.296208
0.257699 -0.091233 -0.405209 0.833683 0.546296 -0.080833
0.211399 0.227741 0.154081 0.876291 -0.108819 -0.469333
0.250417 0.163750 0.278464 0.929167 -0.194747 -0.314201
0.044885 -0.032288 0.392053 0.140119 -0.989811 -0.025313
0.261457 0.199126 0.319338 0.982713 0.063566 -0.173880
0.217460 -0.723754 -0.554842 0.603977 -0.654185 0.455252
-0.096839 -0.691663 -0.659486 0.851191 -0.387254 -0.354273
0.250171 -0.699208 -0.590486 0.857277 -0.485801 0.170510
0.232142 -0.723584 -0.636070 0.692767 -0.694279 -0.195064
0.155944 -0.752323 -0.612588 -0.038338 -0.997853 -0.053100
0.194772 -0.746798 -0.630035 0.264170 -0.947306 -0.181177
0.303371 -0.507156 0.135667 0.766424 -0.011608 0.642230
0.279022 -0.497719 0.155388 0.534011 0.019979 0.845242
0.092271 -0.573711 0.065379 -0.987175 -0.144412 0.068050
0.257831 0.218640 0.480881 0.931143 0.269735 0.245389
0.256420 0.266842 0.417561 0.967680 0.232553 0.097543
0.241868 0.275324 0.252091 0.972886 0.053104 -0.225104
0.221617 0.291044 0.183778 0.934283 0.063136 -0.350897
-0.240174 -0.021026 -0.187437 -0.853653 0.512077 -0.095155
0.356040 0.428856 0.268342 0.694710 -0.662497 0.280137
0.370833 0.471205 0.286714 0.754082 -0.122972 0.645165
0.389141 0.486297 0.257167 0.926093 0.367857 0.083867
0.013979 -0.067661 0.289652 0.297593 -0.433621 0.850536
-0.042591 -0.482994 0.058300 0.244369 -0.870856 0.426491
0.166992 0.549543 0.331361 0.829030 0.415778 0.373948
0.170502 0.583448 0.287959 0.914344 0.217623 -0.341489
0.291975 -0.276523 -0.533680 0.984121 0.049363 -0.170499
0.264873 -0.496023 -0.680354 0.770016 0.071767 -0.633975
0.258122 -0.115641 -0.520356 0.869809 0.457107 -0.185703
0.062714 -0.021200 0.313063 0.304267 -0.935929 0.177366
-0.125648 -0.416880 -0.725931 -0.014032 -0.133798 -0.990909
-0.090719 -0.308247 -0.753084 -0.129432 -0.197112 -0.971799
-0.306342 -0.270276 -0.411740 -0.995116 0.025781 -0.095289
-0.279085 -0.506932 -0.527969 -0.938511 -0.200539 0.281035
-0.274493 -0.478369 -0.482657 -0.895900 -0.383603 0.224079
-0.150755 0.069348 -0.248591 -0.494567 0.813522 -0.305918
-0.139578 0.037605 -0.346208 -0.462246 0.857447 -0.226085
-0.179407 -0.003381 -0.438615 -0.625777 0.771016 -0.118056
-0.315191 -0.283611 -0.322663 -0.996016 0.006892 -0.088912
-0.223658 -0.048069 -0.426575 -0.771142 0.629358 -0.096175
-0.199520 -0.285234 -0.709782 -0.561566 0.071719 -0.824318
-0.292743 -0.267683 -0.531507 -0.982785 0.058035 -0.175400
-0.216737 -0.612008 0.169436 -0.033648 -0.095794 0.994832
-0.236160 -0.046070 -0.304638 -0.815757 0.565280 -0.122475
-0.250050 0.166845 0.273204 -0.925502 -0.200366 -0.321401
0.288669 -0.150818 -0.410074 0.933385 0.346371 -0.093915
-0.270713 0.106459 0.399812 -0.935106 -0.297225 -0.192962
-0.268787 -0.581690 -0.536470 -0.878478 -0.221054 0.423570
-0.275756 -0.628131 -0.635422 -0.964665 -0.225451 -0.136361
-0.250945 -0.658236 -0.546693 -0.807098 -0.332564 0.487846
-0.171425 -0.496746 -0.723603 -0.053363 0.008741 -0.998537
-0.215485 -0.478598 -0.715003 -0.358882 0.064438 -0.931156
-0.317666 -0.607323 0.020309 -0.960479 -0.202641 -0.190832
-0.321002 -0.586183 0.071881 -0.983629 -0.115205 0.138568
-0.157509 -0.668548 0.144171 0.504343 -0.251630 0.826027
-0.125140 -0.640718 0.124486 0.735003 -0.171825 0.655932
-0.272196 0.156861 0.364205 -0.983302 -0.053590 -0.173912
-0.243946 0.327068 0.368571 -0.981754 0.148834 0.118354
-0.132821 -0.380618 0.172701 0.003141 -0.381283 0.924453
-0.336066 0.471675 0.327657 -0.570966 0.100857 0.814755
-0.276311 0.478530 0.346785 -0.254923 0.561185 0.787455
-0.343114 0.502049 0.297754 -0.424292 0.809885 0.405047
-0.085677 -0.519580 0.018210 0.819399 -0.573002 -0.015941
-0.059544 -0.510733 -0.013779 0.209456 -0.952631 0.220506
-0.042704 -0.441476 0.119504 0.174106 -0.738955 0.650871
-0.082072 -0.457141 0.118711 0.505044 -0.522553 0.686928
0.047435 -0.512036 -0.013736 -0.176318 -0.946169 0.271435
-0.028814 0.407278 0.507639 -0.031192 0.427652 0.903405
0.074132 0.395622 0.511585 0.087211 0.437582 0.894939
-0.223964 0.300241 0.497955 -0.798110 0.353416 0.487973
-0.220556 0.362174 0.463025 -0.854919 0.295074 0.426668
-0.079162 -0.013340 0.530309 -0.100141 -0.906739 0.409629
-0.262954 0.511260 0.301226 -0.102650 0.901552 0.420318
-0.115376 0.568682 0.261424 -0.115119 0.566759 -0.815801
-0.164297 0.559115 0.317859 -0.908888 0.355751 0.217632
0.002757 0.539824 0.433731 0.020408 0.702112 0.711774
-0.061677 0.491101 0.464444 -0.091810 0.507932 0.856491
-0.163546 0.591030 0.281671 -0.773640 0.294122 -0.561226
-0.087993 -0.528187 -0.095772 -0.039923 -0.995659 0.084076
-0.140851 -0.520533 -0.110084 -0.009903 -0.987028 -0.160240
-0.073871 -0.547615 -0.442869 -0.013879 -0.988295 -0.151924
-0.116287 -0.263805 -0.753146 -0.342587 -0.003307 -0.939480
-0.146350 -0.704971 -0.028614 0.639925 -0.556110 -0.530318
-0.181073 -0.705619 -0.054621 0.249392 -0.598101 -0.761630
0.186362 -0.533373 -0.451899 0.159934 -0.801459 0.576267
0.232400 -0.516818 -0.455058 0.541878 -0.691013 0.478402
-0.124325 -0.315795 0.205407 -0.204023 -0.322528 0.924311
0.168268 -0.128258 0.187016 0.586654 0.192451 0.786638
0.237848 -0.154993 0.129927 0.758978 0.284100 0.585867
0.322438 -0.393497 0.063763 0.981781 0.084477 0.170207
0.317671 -0.240210 -0.003634 0.972463 0.156928 0.172308
0.181244 -0.089599 0.163004 0.684859 0.292861 0.667234
0.000171 -0.035010 0.471595 0.015837 -0.989148 0.146070
0.248655 -0.735667 0.085962 0.471455 -0.844316 0.254679
0.212749 -0.738028 0.105338 0.048364 -0.856114 0.514518
0.257312 -0.731429 0.045012 0.589891 -0.798884 -0.117531
0.182441 -0.748167 0.067637 -0.210841 -0.964213 0.160745
0.215364 -0.747210 0.023962 0.180523 -0.966709 -0.181340
0.255774 -0.486676 -0.433176 0.663731 -0.722514 0.193481
0.244268 -0.670085 -0.546094 0.778176 -0.356092 0.517340
0.094656 -0.641395 -0.686164 -0.712930 -0.253949 -0.653637
0.173191 -0.691849 -0.506463 0.037623 -0.407466 0.912445
0.155331 -0.532901 -0.441167 0.280739 -0.940710 0.190393
0.116871 -0.708901 -0.672175 -0.535615 -0.494647 -0.684428
0.327569 -0.463168 0.023196 0.999593 -0.010457 -0.026556
-0.252497 -0.192732 -0.626850 -0.858109 0.265954 -0.439224
0.214287 -0.667451 -0.073597 0.127357 -0.325295 -0.936997
0.197245 0.292689 0.132772 0.822470 0.107181 -0.558619
0.331446 0.448878 0.313827 0.573998 -0.302402 0.760973
-0.018194 -0.546745 -0.462877 -0.029968 -0.968836 -0.245882
0.080068 -0.480051 0.102285 -0.748075 -0.448893 0.488753
0.162346 0.258292 0.084586 0.663647 0.056122 -0.745938
0.120464 0.453881 0.473205 0.257618 0.508447 0.821654
0.086644 0.528306 0.429506 0.219299 0.657799 0.720561
0.162490 0.605741 0.323939 0.754545 0.397145 0.522434
0.129612 0.621395 0.324313 -0.110666 0.739980 0.663462
0.169971 -0.534359 -0.356854 0.485365 -0.874029 -0.022237
0.194333 -0.512771 -0.275156 0.489112 -0.868704 0.078242
-0.033598 -0.577765 -0.282655 -0.126652 -0.985902 0.109342
0.062634 -0.593210 -0.618870 -0.967054 -0.243476 -0.074335
-0.039930 -0.573603 -0.355755 -0.131998 -0.978272 -0.159878
0.207212 -0.126949 -0.659963 0.721523 0.435531 -0.538254
0.183803 -0.174576 -0.708489 0.594835 0.233730 -0.769118
0.248212 -0.268007 -0.665996 0.811398 0.119954 -0.572052
0.256197 -0.186214 -0.621426 0.881118 0.270126 -0.388154
-0.302881 -0.259309 0.059577 -0.939893 0.172102 0.294926
0.109624 -0.518928 0.136428 -0.721127 -0.187806 0.666862
-0.267228 -0.476790 -0.286706 -0.632728 -0.774362 -0.004247
-0.289283 -0.458314 -0.181166 -0.682276 -0.730251 -0.035113
-0.201564 -0.389248 0.173466 -0.074800 -0.114528 0.990600
-0.253541 -0.341570 0.164864 -0.498549 0.044069 0.865740
-0.246710 -0.398684 -0.683296 -0.669434 0.117736 -0.733482
-0.297892 -0.332491 0.118066 -0.874961 0.149546 0.460521
-0.279720 -0.460189 -0.389853 -0.773005 -0.632218 -0.052575
-0.164506 0.078471 -0.205010 -0.576132 0.780032 -0.244176
-0.130756 0.064582 -0.285701 -0.420025 0.848985 -0.320628
-0.133489 -0.005070 -0.593900 -0.434580 0.815115 -0.383051
-0.150049 0.019912 -0.410975 -0.489605 0.862359 -0.128935
-0.199345 -0.052058 -0.580078 -0.709689 0.630556 -0.314229
-0.182223 -0.075082 0.147410 -0.688246 0.310564 0.655642
-0.205457 -0.031631 -0.468837 -0.724578 0.679344 -0.116096
-0.244386 -0.069250 -0.378559 -0.807622 0.584389 -0.078972
-0.242528 -0.011499 -0.045696 -0.870407 0.486718 0.074148
-0.133618 0.002658 0.210538 -0.831137 -0.545872 0.105998
-0.223514 0.091588 0.290494 -0.805567 -0.476954 -0.351535
-0.203374 0.183838 0.158442 -0.835129 -0.279959 -0.473479
-0.196589 0.017913 0.370541 -0.594205 -0.758943 -0.266317
-0.258463 0.085144 0.387008 -0.855664 -0.443817 -0.266205
-0.268801 0.086708 0.519892 -0.925286 -0.258805 0.277246
-0.254736 0.201549 0.522974 -0.867668 0.304822 0.392728
-0.233104 -0.725173 -0.024375 -0.370086 -0.754125 -0.542524
-0.171841 -0.730607 0.113376 0.264723 -0.771416 0.578653
-0.115274 -0.737145 -0.597814 0.647363 -0.744468 0.163365
-0.253757 -0.617050 -0.527264 -0.792735 -0.288892 0.536762
-0.139286 -0.608142 -0.491298 0.284119 -0.271399 0.919575
-0.142247 -0.480191 -0.722680 0.058667 -0.019531 -0.998087
-0.123525 -0.646160 -0.712139 0.464785 -0.155384 -0.871683
-0.247177 -0.602477 -0.703958 -0.631279 -0.122722 -0.765784
-0.311876 -0.580038 -0.015483 -0.912335 -0.185171 -0.365181
-0.298981 -0.670198 0.082608 -0.893845 -0.388787 0.223351
-0.327035 -0.451900 0.047959 -0.995918 0.024760 0.086802
-0.312285 -0.481649 0.123776 -0.876178 0.040338 0.480297
-0.230821 -0.473709 0.169513 -0.052574 -0.001136 0.998616
-0.165081 -0.629451 -0.072262 0.524756 -0.159624 -0.836153
-0.203511 -0.702773 -0.059610 -0.093426 -0.561307 -0.822317
-0.095523 -0.576112 0.089047 0.918316 -0.153438 0.364901
-0.213495 0.271758 0.155708 -0.893570 0.044458 -0.446716
-0.263451 0.177376 0.313597 -0.975466 -0.051605 -0.214015
-0.271510 0.374958 0.216712 -0.557657 -0.732412 -0.390629
-0.303666 0.464074 0.346277 -0.455448 0.088161 0.885886
-0.273145 0.412277 0.330362 -0.485482 -0.532562 0.693314
-0.357929 0.484034 0.307442 -0.737003 0.280992 0.614711
-0.374711 0.474595 0.227487 -0.765426 0.244043 -0.595455
0.023554 0.019791 -0.612951 0.058207 0.902523 -0.426689
-0.031235 0.105874 -0.232410 -0.053776 0.952276 -0.300465
-0.150940 0.212728 0.076511 -0.665203 -0.051024 -0.744918
-0.170678 0.335593 0.519702 -0.292555 0.432623 0.852789
-0.036607 0.262185 0.579324 -0.013195 0.504179 0.863499
-0.195408 0.209964 0.588148 -0.401021 0.456470 0.794240
-0.132990 -0.206281 0.215291 -0.411764 0.015782 0.911154
-0.090397 -0.054055 0.247860 -0.723106 -0.112441 0.681523
-0.189747 0.000447 0.505911 -0.369221 -0.893282 0.256364
-0.152130 0.052026 0.599778 -0.214745 -0.606389 0.765622
-0.070206 0.315884 0.048306 -0.273412 0.302029 -0.913249
-0.151967 0.391940 0.142055 -0.490292 0.412391 -0.767820
0.000607 0.533928 0.196451 -0.018945 0.795563 -0.605574
-0.074477 0.580953 0.351976 0.082158 0.961401 0.262598
-0.048933 0.527004 0.443051 -0.071789 0.647036 0.759072
-0.173815 0.511466 0.403910 -0.656613 0.587934 0.472432
-0.130117 0.637316 0.285055 0.147950 0.645306 -0.749460
-0.154513 -0.536683 -0.407679 -0.402617 -0.914475 -0.040437
-0.117016 -0.525973 -0.122061 -0.185481 -0.981216 0.053034
-0.119096 -0.544733 -0.211542 -0.293277 -0.935789 0.195670
-0.179665 -0.526492 -0.292883 -0.483093 -0.873121 0.065420
-0.088281 -0.544993 -0.462427 0.339752 -0.938108 0.067242
-0.153951 -0.249282 -0.734738 -0.482004 0.089407 -0.871596
0.293001 -0.450965 -0.163560 0.775593 -0.627129 -0.071873
0.248557 -0.505305 -0.117700 0.430971 -0.713940 -0.551864
0.210077 -0.531466 -0.458643 0.336966 -0.726506 0.598868
0.259868 -0.224736 0.130612 0.761801 0.230158 0.605546
0.326671 -0.344570 -0.062027 0.997393 -0.064826 -0.031696
0.300282 -0.325654 0.109006 0.876592 0.156528 0.455067
0.306278 -0.216582 0.028767 0.942851 0.206573 0.261457
0.158752 0.083844 -0.208925 0.540036 0.799789 -0.262103
0.170760 -0.026274 -0.579817 0.618246 0.737514 -0.271744
0.209877 -0.102179 0.138008 0.746006 0.323082 0.582317
0.261296 -0.052139 -0.137618 0.888625 0.456802 -0.040949
0.235398 0.004565 -0.054305 0.871280 0.487895 0.053198
0.136986 0.112808 0.086699 0.889893 0.426242 -0.162506
0.201593 0.183206 0.156713 0.828756 -0.278929 -0.485141
0.154380 0.160541 0.106778 0.771655 -0.296942 -0.562471
0.264722 0.077305 0.418054 0.847188 -0.480469 -0.226764
0.186140 -0.002457 0.495092 0.418611 -0.892699 0.166891
0.277356 0.110523 0.495432 0.985636 -0.020885 0.167585
0.235092 -0.733526 0.106149 0.317460 -0.800125 0.508939
0.110810 -0.733759 -0.586048 -0.667190 -0.694874 0.268343
0.250459 -0.702282 -0.620435 0.856765 -0.511767 -0.063624
0.266014 -0.657569 -0.651781 0.920753 -0.327640 -0.211817
0.076225 -0.589041 -0.678033 -0.794916 -0.189378 -0.576407
0.089187 -0.707572 -0.624209 -0.908353 -0.409610 -0.084351
0.109087 -0.643783 -0.522595 -0.671779 -0.324557 0.665864
0.137089 -0.598411 -0.488662 -0.236203 -0.280089 0.930461
0.167221 -0.718595 -0.520439 -0.040850 -0.601120 0.798114
0.147800 -0.580730 -0.724105 -0.197331 -0.079981 -0.977069
0.188959 -0.575207 -0.726038 0.142475 -0.022565 -0.989541
0.192410 -0.703306 -0.695918 0.171237 -0.537087 -0.825963
0.215643 -0.655191 -0.711567 0.321851 -0.272040 -0.906866
0.148671 -0.673173 -0.706943 -0.261665 -0.349802 -0.899539
0.325042 -0.457134 -0.009767 0.994017 -0.025867 -0.106122
0.327471 -0.458978 0.051824 0.995882 0.017113 0.089025
0.308448 -0.590864 -0.014356 0.902594 -0.215142 -0.372877
0.182769 -0.663872 0.157340 -0.309594 -0.298393 0.902836
0.139073 -0.638272 -0.052212 -0.639303 -0.213429 -0.738742
0.165527 -0.579356 -0.080792 -0.468831 -0.182427 -0.864244
0.169353 -0.710491 -0.046555 -0.370706 -0.588003 -0.718909
0.265266 0.170032 0.327935 0.979079 -0.037616 -0.199973
0.229466 0.306359 0.214861 0.956019 0.055778 -0.287954
0.212443 0.273471 0.155184 0.894564 0.036028 -0.445485
0.338965 0.410799 0.245456 0.601856 -0.798541 -0.010055
0.378412 0.488601 0.280024 0.778940 0.398226 0.484427
0.130366 0.127693 -0.080253 0.422937 0.898856 -0.114813
0.063588 -0.502686 0.019836 -0.343850 -0.911567 0.225415
0.056892 -0.472029 0.083344 -0.435243 -0.698118 0.568502
0.115473 0.070617 -0.291000 0.361274 0.874214 -0.324395
0.192183 0.236273 0.566191 0.447649 0.505435 0.737662
0.105119 -0.379931 0.177513 -0.187446 -0.432028 0.882165
0.007446 -0.319332 0.220489 0.020899 -0.450706 0.892428
0.082231 -0.152364 0.243164 0.502055 -0.040263 0.863898
0.103111 -0.065007 0.222209 0.658487 0.084151 0.747873
0.008384 0.111405 0.639527 0.022952 -0.135587 0.990500
0.074019 0.471758 0.154512 0.384720 0.595002 -0.705665
0.140224 0.530774 0.246173 0.383846 0.634781 -0.670608
0.243822 0.453088 0.199642 0.051145 0.404958 -0.912904
0.180881 0.517367 0.349871 0.713310 0.621994 0.322974
0.150440 -0.539021 -0.405549 0.433780 -0.897631 -0.078065
0.118230 -0.554271 -0.244419 0.330166 -0.920350 0.209632
0.053573 -0.548461 -0.475864 -0.182171 -0.974272 -0.132690
0.086340 -0.563480 -0.390650 0.175751 -0.978133 -0.111211
0.180118 -0.128693 -0.692449 0.610839 0.402429 -0.681855
0.038426 -0.110972 -0.751652 0.113361 0.488997 -0.864888
-0.208564 -0.508786 -0.141801 -0.254679 -0.895548 -0.364873
-0.211135 -0.325727 0.180061 -0.232438 -0.088452 0.968581
-0.258483 -0.266228 0.147573 -0.670679 0.195495 0.715522
-0.200595 -0.168598 0.170399 -0.631083 0.219124 0.744122
-0.313217 -0.416339 -0.185814 -0.963958 -0.258285 -0.063824
-0.329564 -0.305265 -0.102795 -0.999763 -0.018416 -0.011565
-0.313072 -0.190763 -0.243953 -0.965373 0.247901 -0.081234
-0.281555 -0.477148 -0.510816 -0.937658 -0.287190 0.195751
-0.277931 -0.382967 -0.626728 -0.946155 0.119283 -0.300937
-0.282155 -0.284226 -0.583291 -0.964514 0.051543 -0.258953
-0.301343 -0.252860 -0.463017 -0.990965 0.057893 -0.120985
-0.266366 -0.481876 -0.457139 -0.836859 -0.496039 0.231542
-0.215567 -0.038300 0.077272 -0.797671 0.429398 0.423484
-0.278640 -0.132375 -0.447651 -0.905537 0.407241 -0.118984
-0.131964 -0.033125 0.187598 -0.865853 0.063915 0.496199
-0.152971 0.043687 0.193525 -0.937907 -0.343940 -0.045113
-0.180352 0.048559 0.271358 -0.671152 -0.662045 -0.333543
-0.229079 0.147238 0.238863 -0.859207 -0.331823 -0.389431
-0.276779 0.131484 0.403869 -0.986269 -0.097621 -0.133202
-0.254577 0.114326 0.564504 -0.848475 -0.077572 0.523520
-0.229347 0.255090 0.526627 -0.761021 0.410282 0.502510
-0.239664 -0.742365 0.064457 -0.371035 -0.914198 0.163019
-0.208782 -0.749515 0.021478 -0.096351 -0.980089 -0.173612
-0.218177 -0.715257 -0.667277 -0.622034 -0.628706 -0.466693
-0.279454 -0.546552 -0.546511 -0.936929 -0.150697 0.315365
-0.280816 -0.584427 -0.647167 -0.979612 -0.105066 -0.171237
-0.249171 -0.673595 -0.666714 -0.766481 -0.453092 -0.455208
-0.070427 -0.522935 -0.688624 0.802391 -0.211553 -0.558044
-0.069294 -0.614935 -0.612562 0.970363 -0.231773 -0.068385
-0.059072 -0.545444 -0.643221 0.941174 -0.290639 -0.172394
-0.075544 -0.587314 -0.545718 0.830325 -0.303509 0.467378
-0.108290 -0.693209 -0.680077 0.704299 -0.428719 -0.565829
-0.179340 -0.654522 -0.496707 -0.110868 -0.342415 0.932984
-0.213926 -0.589947 -0.488600 -0.345268 -0.281331 0.895345
-0.318414 -0.617856 0.056271 -0.978202 -0.201706 0.049356
-0.270754 -0.459084 0.159872 -0.465281 0.028597 0.884701
-0.207292 -0.560601 0.171245 0.026516 -0.025876 0.999313
-0.142281 -0.577190 -0.064221 0.579043 -0.195176 -0.791591
-0.159456 -0.697750 -0.048544 0.534173 -0.474704 -0.699511
-0.209154 -0.633591 -0.083301 -0.122503 -0.251912 -0.959965
-0.247500 -0.573439 -0.086634 -0.344411 -0.238999 -0.907888
-0.096138 -0.487043 0.118271 0.793174 -0.241570 0.559034
-0.109058 -0.629202 -0.009690 0.923493 -0.167454 -0.345138
-0.094174 -0.565939 0.027226 0.971198 -0.158667 -0.177763
-0.253668 0.248451 0.292790 -0.982661 0.042296 -0.180524
-0.247175 0.405534 0.186553 -0.282862 0.174398 -0.943173
-0.348950 0.415130 0.263065 -0.812227 -0.564470 0.147172
-0.022593 0.137347 -0.103489 -0.019653 0.980871 -0.193663
-0.122532 0.128903 -0.002695 -0.525033 0.844412 -0.106349
-0.020240 -0.491565 -0.630358 0.346846 -0.894714 -0.281397
-0.106418 0.184455 0.050973 -0.538166 0.131860 -0.832460
0.014708 -0.442588 -0.697878 -0.054020 -0.651811 -0.756455
-0.094014 -0.018472 0.273147 -0.507869 -0.830179 0.229938
-0.136254 0.003123 0.545368 -0.193965 -0.863634 0.465311
-0.216732 0.338226 0.485918 -0.801433 0.314373 0.508798
-0.222115 0.391339 0.438325 -0.886909 0.266888 0.377045
-0.310700 0.511535 0.242306 -0.181588 0.864049 -0.469515
-0.107019 0.549940 0.410254 -0.191669 0.738461 0.646482
-0.047648 -0.557005 -0.418329 -0.121444 -0.967114 -0.223476
-0.017265 -0.581744 -0.312995 -0.076066 -0.996857 -0.022144
-0.077647 -0.259161 -0.766017 -0.180265 -0.095764 -0.978945
-0.146036 -0.142718 -0.717704 -0.502968 0.348762 -0.790815
0.207861 -0.508984 -0.141898 0.260318 -0.894830 -0.362648
0.251325 -0.501618 -0.460976 0.713771 -0.560631 0.419789
0.195780 -0.366875 0.174039 0.046527 -0.118582 0.991854
0.239311 -0.270698 0.163924 0.580843 0.125257 0.804321
0.229940 -0.438779 -0.703883 0.584209 0.087540 -0.806868
0.289447 -0.444767 -0.555702 0.997248 -0.073034 0.012731
0.262397 -0.237797 -0.633230 0.898763 0.156825 -0.409429
0.294777 -0.423972 -0.424276 0.981171 -0.187286 -0.047183
0.178253 0.086426 -0.026848 0.768094 0.623297 0.146737
0.216810 0.000185 -0.240950 0.807435 0.561164 -0.182052
0.172613 -0.005801 -0.475974 0.623877 0.767173 -0.149075
0.235158 -0.139113 -0.625553 0.817237 0.408176 -0.406837
0.234051 -0.097388 -0.572221 0.816937 0.501465 -0.284864
0.159110 -0.089271 0.182820 0.609556 0.239110 0.755823
0.168060 0.044834 0.063866 0.818555 0.440816 0.368305
0.272570 -0.121671 -0.446849 0.884352 0.451596 -0.118245
0.265339 -0.076941 0.012920 0.877619 0.396824 0.268915
0.150736 0.024649 0.207539 0.939198 -0.338639 0.056839
0.183705 0.038072 0.297657 0.666285 -0.684813 -0.295119
